ply
format ascii 1.0
comment Created by Open3D
element vertex 710
property double x
property double y
property double z
property double nx
property double ny
property double nz
property uchar red
property uchar green
property uchar blue
end_header
-51.3282 114.235 -92.7988 0.0676107 0.116486 0.990888 177 182 185
-57.0503 135.356 -92.7501 0.0216281 0.000296593 0.999766 199 216 218
-47.7856 106.235 -92.4345 0.0903056 0.0394622 0.995132 200 208 210
-48.2993 111.515 -92.6243 0.094351 0.123926 0.987796 194 199 203
-45.1551 124.109 -92.8117 0.00665517 0.044918 0.998969 183 188 135
-58.503 133.747 -92.7176 0.0563376 -0.0065521 0.99839 191 196 200
-50.0081 103.681 -92.2362 0.00163484 0.173014 0.984918 209 215 218
-55.7816 131.129 -92.7271 0.0572902 -0.00803873 0.998325 205 221 229
-58.4528 132.025 -92.6803 0.0161023 -0.0122201 0.999796 197 229 240
-56.7112 110.97 -92.4701 0.0604612 0.115808 0.99143 217 224 224
-55.8323 106.062 -92.1723 0.00456453 -0.00529708 0.999976 213 220 222
-45.3844 113.417 -92.6038 -0.00319254 0.0575183 0.998339 160 170 124
-54.6028 109.894 -92.2607 0.0477746 0.0361361 0.998204 209 215 217
-65.8963 134.802 -92.0915 0.114437 -0.190525 0.974989 98 127 73
-51.4155 134.818 -92.8911 -0.013293 -0.0715363 0.997349 199 206 210
-50.9146 108.71 -92.5139 -0.081943 0.0449174 0.995624 203 209 212
-53.3228 111.826 -92.4135 -0.00211592 -0.0112774 0.999934 205 211 214
-58.4364 102.271 -92.2714 0.0102577 -0.0170055 0.999803 202 207 206
-51.6983 103.436 -92.2324 0.00416166 0.0084243 0.999956 204 211 213
-49.4375 110.935 -92.491 0.0098997 -0.0445292 0.998959 196 204 207
-44.8142 114.975 -92.5715 -0.0190119 0.00989381 0.99977 127 162 107
-48.7042 114.947 -92.5921 0.0223263 -0.0222765 0.999503 190 199 201
-56.3065 116.729 -92.4415 0.0236434 0.0906289 0.995604 212 217 219
-47.7231 125.922 -92.7464 -0.00805796 0.0174079 0.999816 187 193 195
-53.3766 126.666 -92.6048 0.00182488 0.0509201 0.998701 202 210 213
-53.3862 132.746 -92.7369 0.0582558 -0.00752734 0.998273 193 199 205
-49.3565 125.876 -92.8102 -0.0059076 -0.0398919 0.999187 201 207 207
-52.3184 112.643 -92.4601 0.0381568 0.036599 0.998601 201 209 212
-49.236 106.573 -92.42 -0.145183 0.0051644 0.989391 204 212 214
-63.5018 117.818 -92.3851 -0.00209877 -0.00127951 0.999997 193 191 189
-55.4061 133.753 -92.7426 0.0541827 0.0329871 0.997986 254 254 255
-52.1655 112.403 -92.6695 -0.0224765 -0.12378 0.992055 203 209 212
-51.8463 113.681 -92.726 0.076089 0.012582 0.997022 166 174 176
-46.4111 121.174 -92.7233 0.00667468 0.0143736 0.999874 172 178 127
-65.2646 130.629 -92.5631 0.176628 -0.128814 0.975812 155 158 159
-51.0427 126.177 -92.7968 0.0452909 0.0620945 0.997042 201 208 210
-55.1512 109.044 -92.2666 0.0201968 0.0165358 0.999659 208 216 217
-47.4759 103.095 -92.2261 0.0578763 0.122997 0.990718 202 208 211
-54.0045 130.747 -92.7556 0.115624 -0.0182511 0.993125 195 203 207
-48.0083 102.804 -92.2115 -0.113045 -0.026414 0.993239 203 213 214
-47.8734 128.767 -92.9228 -0.0199738 -0.00552228 0.999785 197 206 206
-54.8534 119.836 -92.6134 -0.00750681 0.0121995 0.999897 197 205 208
-61.9172 115.507 -92.3672 0.0136793 -0.0233876 0.999633 204 208 206
-55.1551 107.979 -92.4287 -0.0902454 0.0391934 0.995148 208 214 216
-47.2884 103.521 -92.3464 -0.0223843 0.0150001 0.999637 202 210 212
-61.0582 133.123 -92.658 0.00580461 0.0155031 0.999863 187 194 198
-53.888 124.884 -92.6827 0.0399231 0.0860942 0.995487 206 212 214
-60.819 120.773 -92.524 0.00421789 -0.00429171 0.999982 194 198 197
-63.5179 124.332 -92.4006 0.0289539 -0.00328697 0.999575 203 206 205
-59.9277 113.828 -92.4217 0.0113099 0.00984456 0.999888 214 218 219
-44.292 115.612 -92.5417 -0.1013 0.0575783 0.993188 85 128 71
-71.4511 102.501 -90.9348 0.0236007 -0.0432519 0.998785 50 47 33
-57.1302 118.34 -92.4598 0.0128314 0.0178844 0.999758 211 217 219
-48.5289 106.923 -92.4904 -0.0317194 0.0644561 0.997416 202 210 212
-49.0803 125.533 -92.8238 0.0309598 0.00737036 0.999493 202 209 209
-61.0787 124.512 -92.5269 0.0544853 0.0570778 0.996882 185 186 183
-53.4379 122.247 -92.6238 -0.00088586 0.0479382 0.99885 202 210 213
-64.617 131.29 -92.5543 0.0104321 0.00995796 0.999896 177 183 181
-52.9243 120.685 -92.589 0.0123081 -0.0248074 0.999616 201 209 212
-62.0159 113.459 -92.3887 0.0258544 -0.0291238 0.999241 211 217 215
-49.466 129.253 -92.7728 0.0296395 -0.0061019 0.999542 199 207 207
-66.283 125.153 -92.4111 0.0244811 0.0266582 0.999345 188 193 189
-46.7303 131.534 -92.9237 0.0488592 0.0169538 0.998662 193 202 201
-58.2193 130.652 -92.6472 0.0148471 0.0348758 0.999281 199 200 203
-50.7939 105.354 -92.3642 0.107913 0.00896235 0.99412 206 214 217
-51.4281 123.933 -92.6491 0.0256312 0.0365067 0.999005 203 210 213
-53.9102 107.579 -92.4544 0.0128604 0.0592711 0.998159 203 210 212
-50.0109 106.942 -92.4755 -0.116527 0.0101911 0.993135 206 212 215
-52.5231 108.731 -92.3239 0.0418542 0.0142356 0.999022 205 212 215
-53.1891 128.169 -92.694 0.0537953 0.0641595 0.996489 204 210 212
-66.8635 119.488 -92.3956 -0.00799198 -0.0157383 0.999844 194 196 193
-44.7513 104.771 -92.3428 0.0376221 0.0812283 0.995985 204 209 212
-56.7939 115.493 -92.4325 0.0488712 0.0106122 0.998749 208 213 216
-55.4022 121.979 -92.6156 0.136044 0.0153663 0.990584 204 211 213
-61.038 115.951 -92.4279 -0.0427011 0.0425976 0.998179 212 217 215
-57.5916 129.198 -92.6124 0.0154852 0.0445252 0.998888 198 204 209
-54.7944 108.415 -92.3631 0.101634 0.0372782 0.994123 203 210 212
-46.8922 115.774 -92.6133 -0.00152295 0.0102571 0.999946 153 223 226
-63.1971 114.245 -92.2861 -0.0619573 0.00174929 0.998077 197 199 198
-62.2038 131.98 -92.6076 -0.00173269 0.0280145 0.999606 191 198 203
-48.1382 133.956 -92.947 0.0214083 -0.0011701 0.99977 197 204 204
-55.0296 106.715 -92.3509 0.0905318 0.0476281 0.994754 211 217 219
-47.7374 126.213 -92.8179 0.0217211 -0.00427335 0.999755 189 194 197
-46.2406 110.685 -92.5651 0.0784534 0.0075895 0.996889 193 199 201
-46.0943 127.863 -92.7882 -0.00506139 0.0188145 0.99981 183 189 189
-68.5701 128.253 -92.2694 0.102901 -0.137243 0.985178 120 123 94
-48.9106 120.929 -92.6311 0.0752017 -0.00595414 0.997151 196 203 204
-49.6918 114.04 -92.5013 0.0378215 -0.00943974 0.99924 204 210 213
-61.1025 127.011 -92.5148 -0.00984046 0.0324592 0.999425 212 217 219
-48.0438 123.135 -92.8215 0.0493833 0.03378 0.998208 191 195 198
-56.9082 104.262 -92.1261 0.0138933 0.0462812 0.998832 213 219 219
-48.7612 135.1 -92.9509 -0.027665 -0.0485525 0.998437 194 202 203
-46.0429 131.371 -92.9246 0.06201 0.0366364 0.997403 192 197 197
-52.7498 129.151 -92.7638 0.071677 0.0250102 0.997114 205 212 214
-66.1304 112.653 -92.3078 -0.0199696 0.0398774 0.999005 109 115 116
-52.1772 132.841 -92.8 0.0339379 0.0344374 0.99883 195 203 208
-52.562 115.627 -92.4797 0.0166075 -0.024788 0.999555 204 211 214
-54.6707 121.393 -92.6068 0.0135386 -0.00503518 0.999896 203 211 213
-51.1411 108.005 -92.405 0.0626523 0.132292 0.989229 205 212 215
-62.5224 128.831 -92.5626 -0.0635921 0.0141311 0.997876 189 195 195
-66.79 121.868 -92.4515 0.0300141 0.00497541 0.999537 193 194 190
-50.3406 113.008 -92.5131 -0.0253822 -0.012236 0.999603 202 212 213
-64.3929 131.568 -92.6487 0.0307408 0.0100178 0.999477 181 186 183
-45.5464 104.691 -92.4554 0.0728479 0.119067 0.99021 201 209 211
-61.1 106.984 -92.2551 0.0136405 0.013135 0.999821 196 201 197
-51.9075 104.22 -92.3181 0.0276008 -0.0211517 0.999395 205 212 214
-61.9509 105.32 -92.1377 0.0110019 0.102685 0.994653 156 158 152
-51.1377 115.604 -92.5886 0.0467642 0.0294774 0.998471 211 218 220
-69.261 123.179 -91.2909 -0.0181716 0.0211013 0.999612 195 224 225
-61.7329 103.895 -92.0965 0.01137 0.0662434 0.997739 190 191 183
-44.678 117.268 -92.6609 0.0859261 -0.0941513 0.991843 164 172 134
-59.227 123.646 -92.4937 0.00915681 -0.00637366 0.999938 202 208 206
-49.2695 117.727 -92.6167 -0.0340581 0.052925 0.998018 196 204 207
-56.4388 124.414 -92.5841 0.0724415 0.0327659 0.996834 204 210 210
-49.8355 111.346 -92.4055 -0.0564422 -0.0189505 0.998226 189 198 201
-55.0644 117.425 -92.477 0.0139676 0.00189218 0.999901 205 211 213
-62.1974 114.494 -92.3769 0.0160267 -0.0466314 0.998784 216 221 219
-55.9784 103.037 -92.2973 -0.00986448 0.0569378 0.998329 214 220 220
-45.4618 110.655 -92.5351 -0.0264653 0.0413257 0.998795 174 180 140
-48.2554 104.203 -92.3139 -0.104298 -0.0239337 0.994258 206 214 217
-64.693 127.111 -92.4807 0.0196864 -0.006668 0.999784 197 200 199
-64.1881 113.561 -92.3346 0.0096565 0.0359773 0.999306 188 192 187
-49.8428 115.905 -92.6341 -0.0452476 0.014553 0.99887 205 212 215
-46.2305 130.614 -92.9286 0.0112357 0.0411786 0.999089 193 199 199
-51.7318 115.269 -92.6732 -0.0215251 -0.0877817 0.995907 206 213 216
-47.9282 110.482 -92.588 -0.0120548 -0.0436848 0.998973 193 201 203
-51.1403 108.446 -92.4735 0.0770693 -0.0663929 0.994813 206 211 214
-56.1847 109.248 -92.34 0.0423239 0.0357473 0.998464 216 222 223
-55.5099 107.728 -92.3911 -0.00469632 0.145052 0.989413 213 218 219
-44.3273 120.806 -92.8207 0.0164456 0.0503197 0.998598 185 183 146
-51.5963 129.929 -92.8121 0.0387344 -0.010958 0.999189 206 212 215
-58.0856 108.86 -92.3556 0.0327346 0.0456248 0.998422 212 220 219
-58.2768 112.206 -92.4041 -0.00555487 -0.00533132 0.99997 216 225 224
-63.9537 134.837 -91.5568 0.12855 -0.00409916 0.991695 238 251 253
-49.127 108.885 -92.5087 0.0070673 0.0846468 0.996386 194 200 204
-52.307 111.258 -92.4991 0.0945977 0.163308 0.982029 202 209 212
-48.0687 111.725 -92.6368 0.0414367 0.109787 0.993091 200 207 209
-70.787 135.085 -88.2827 0.084782 0.0914162 0.992197 148 148 95
-49.7374 134.656 -92.7977 0.0267615 0.0398942 0.998845 196 203 204
-61.2407 127.037 -92.5301 -0.0113564 0.0423868 0.999037 196 198 200
-56.9601 117.141 -92.5074 0.0981897 0.0224702 0.994914 212 218 219
-50.3448 119.473 -92.6582 -0.00720385 0.0179843 0.999812 203 210 212
-57.1249 131.943 -92.6365 0.0391957 0.00717489 0.999206 207 212 219
-50.9794 102.938 -92.297 0.0640371 -0.0131893 0.99786 207 214 216
-44.4901 103.472 -92.37 0.0468809 0.0602588 0.997081 203 210 212
-47.78 128.161 -92.8576 -0.0228422 0.0801501 0.996521 197 204 204
-52.1344 129.469 -92.6596 0.0469048 0.0530899 0.997488 206 213 215
-47.2515 117.116 -92.6332 -0.0197354 0.0401601 0.998998 160 217 236
-61.1923 117.554 -92.4578 0.0173934 -0.0202718 0.999643 212 216 215
-53.4356 133.611 -92.8188 0.00820013 -0.0211616 0.999742 199 205 210
-57.1606 115.377 -92.4393 0.0469676 0.0370566 0.998209 210 216 216
-45.6213 108.806 -92.4315 0.0295338 0.0840346 0.996025 188 194 194
-54.3341 117.02 -92.582 -0.000442597 0.00975585 0.999952 207 214 216
-53.9729 104.105 -92.1843 0.0637173 -0.0215793 0.997735 210 219 218
-52.2422 105.175 -92.3603 0.188737 0.110974 0.975737 206 213 214
-49.4031 102.79 -92.3962 0.0128435 0.0189824 0.999737 187 193 191
-64.4977 130.562 -92.5799 0.0364182 0.0251775 0.999019 183 188 188
-48.6422 110.59 -92.4898 -0.0395131 -0.0117515 0.99915 191 201 203
-65.7951 123.351 -92.4004 0.0102462 0.00038217 0.999947 197 199 197
-64.5204 108.382 -92.1928 0.01803 0.0640053 0.997787 154 154 152
-48.4133 113.69 -92.5355 0.0156313 0.00700976 0.999853 199 208 209
-51.1166 103.637 -92.194 -0.0226958 -0.0508665 0.998448 208 213 216
-44.2348 115.412 -92.6609 -0.0751243 0.0427246 0.996258 91 137 73
-61.3579 120.81 -92.4669 0.00677999 0.0125325 0.999898 189 192 191
-50.2756 106.432 -92.5222 -0.118062 0.130362 0.984412 158 160 164
-60.8541 118.253 -92.4638 0.0275753 0.00809757 0.999587 215 218 216
-63.7573 107.355 -92.2148 0.0128739 0.0605182 0.998084 163 164 159
-63.0667 130.889 -92.4694 0.0381959 0.031623 0.99877 195 200 205
-53.513 119.765 -92.5317 0.00150453 -0.0126296 0.999919 199 207 209
-53.6487 109.262 -92.4202 -0.081508 0.01432 0.99657 204 210 212
-49.1413 127.076 -92.8018 0.00876339 0.0457633 0.998914 198 205 206
-51.6396 104.698 -92.3494 0.160067 -0.0537008 0.985644 204 211 213
-54.8743 131.786 -92.7602 0.0316695 0.0149896 0.999386 235 239 245
-69.107 107.886 -80.7544 -0.125924 -0.140246 0.982076 138 150 109
-51.0816 119.406 -92.5918 0.0371743 0.0501607 0.998049 206 212 215
-64.904 114.592 -92.3737 -0.0265532 -0.0621157 0.997716 185 187 184
-56.5621 117.877 -92.5058 -0.0097304 -0.0293742 0.999521 209 215 216
-60.144 104.209 -92.1532 -0.0253452 0.0312699 0.99919 197 200 195
-49.3542 114.237 -92.5306 0.0740376 0.0305818 0.996786 202 208 211
-64.7987 128.613 -92.5119 0.00473766 0.0097376 0.999941 193 196 194
-56.2436 132.382 -92.6946 0.00541668 -0.022624 0.999729 215 235 243
-65.2441 110.307 -92.3509 -0.0211058 0.00199806 0.999775 161 162 160
-52.3072 104.437 -92.2624 0.11059 0.0534978 0.992425 203 210 212
-53.5377 104.717 -92.3227 -0.0417756 0.158357 0.986498 207 214 213
-55.6974 114.465 -92.4722 0.0568782 -0.00366705 0.998374 211 217 219
-52.0753 108.16 -92.4181 -0.0120614 0.0169065 0.999784 203 211 213
-56.2022 121.753 -92.5963 -0.0198597 0.012939 0.999719 202 210 211
-52.0904 125.247 -92.7235 0.0255644 0.0185385 0.999501 205 212 214
-45.6669 115.077 -92.6823 0.0165707 0.0100234 0.999812 166 176 130
-45.7469 111.947 -92.4898 -0.0337498 0.0120728 0.999357 170 174 127
-62.1794 107.228 -92.2024 0.0110832 0.033483 0.999378 183 186 181
-45.7206 104.785 -92.299 0.0757804 0.0702692 0.994645 202 210 212
-45.3867 107.579 -92.5954 0.0562383 -0.000441654 0.998417 176 181 178
-54.4211 116.875 -92.6542 -0.0207574 0.0547032 0.998287 207 212 214
-66.6954 113.409 -92.2326 -0.0178191 0.0491259 0.998634 114 112 106
-47.5959 125.478 -92.9398 0.0258609 -0.00179892 0.999664 188 193 195
-58.7437 110.155 -92.3603 0.0516762 -0.00393629 0.998656 210 218 217
-60.9792 129.252 -92.5858 -0.00124133 0.0182484 0.999833 188 192 194
-50.6105 110.606 -92.5111 -0.00650448 -0.0396413 0.999193 193 201 204
-53.944 115.586 -92.5007 0.0358284 0.00543521 0.999343 204 212 214
-47.9324 121.79 -92.7451 0.00337693 0.0682075 0.997665 201 210 212
-50.8864 131.104 -92.8136 0.0732115 -0.0278829 0.996927 200 208 210
-54.834 131.177 -92.7009 -0.0216211 -0.0383115 0.999032 218 225 234
-46.1296 114.881 -92.553 0.00673638 -0.0360411 0.999328 178 184 139
-50.627 106.354 -92.4675 0.111431 -0.0787241 0.990649 208 215 218
-58.5995 102.355 -92.2259 -0.0349163 -0.00379554 0.999383 202 207 206
-61.0813 129.547 -92.5804 0.0126486 0.00972667 0.999873 199 202 204
-46.5726 109.954 -92.4845 0.0327562 -0.0248165 0.999155 194 198 202
-48.0457 126.168 -92.8355 -0.0790342 -0.0390582 0.996106 190 195 198
-48.6859 105.426 -92.2851 -0.158185 0.060463 0.985557 204 212 214
-63.6022 112.336 -92.3847 0.0675528 0.0392156 0.996945 192 197 193
-50.4331 109.072 -92.4312 0.0659954 0.161977 0.984585 202 209 212
-50.1847 107.677 -92.5319 -0.0397852 -0.0360522 0.998558 157 158 167
-55.709 102.529 -92.314 0.0353885 -0.0154851 0.999254 216 221 223
-50.8645 111.179 -92.7012 0.00467562 -0.031987 0.999477 167 172 172
-54.4025 112.129 -92.5405 -0.0312012 -0.0591788 0.99776 207 214 216
-49.8058 106.637 -92.4215 0.0802688 0.0643188 0.994696 206 213 215
-61.9888 127.874 -92.506 0.0308737 -0.00937257 0.999479 197 201 201
-48.9896 125.597 -92.7264 0.0211522 -0.0107776 0.999718 192 198 199
-54.8743 113.362 -92.6299 0.0206283 0.0242289 0.999494 196 203 206
-54.924 129.329 -92.6529 0.0570414 -0.00319716 0.998367 195 202 208
-60.0461 106.567 -92.2424 -0.0456784 -0.0294558 0.998522 213 219 214
-55.148 131.516 -92.7158 0.0117109 -0.0677237 0.997635 215 240 251
-58.7487 125.397 -92.5316 0.0119818 0.0293376 0.999498 203 208 209
-48.6805 123.638 -92.7151 0.0420028 0.00963178 0.999071 200 207 207
-61.376 133.204 -92.6357 0.0424334 -0.00444069 0.999089 188 195 199
-48.2973 124.711 -92.7816 0.0547846 0.0623726 0.996548 191 196 197
-62.4911 122.935 -92.466 0.0206225 0.0101891 0.999735 175 176 173
-61.7194 132.108 -92.582 0.00777572 -0.0119648 0.999898 192 197 200
-49.816 127.535 -92.7701 -0.0129017 -0.0230582 0.999651 203 209 213
-45.3942 109.809 -92.5614 0.0614555 0.0440443 0.997138 217 217 205
-64.9223 124.537 -92.4619 0.0513261 -0.0153336 0.998564 199 201 198
-44.4684 125.214 -92.8209 0.0841567 -0.0116065 0.996385 195 200 151
-63.1742 115.97 -92.4366 0.0366748 -0.00489665 0.999315 199 205 197
-62.6771 128.849 -92.5588 -0.0041199 -0.00938682 0.999947 189 195 194
-67.1205 128.907 -91.3272 -0.00802727 0.0467016 0.998877 190 228 228
-60.83 111.293 -92.342 0.0363958 -0.0205819 0.999125 215 225 219
-50.0595 107.017 -92.4614 -0.049839 0.0368404 0.998078 205 212 215
-52.7601 130.928 -92.7278 0.0109965 -0.0127458 0.999858 206 212 214
-53.4977 103.296 -92.2766 0.044273 -0.0704446 0.996533 211 218 217
-52.2192 135.031 -92.8939 0.0259949 0.0147365 0.999553 196 204 210
-63.1572 128.502 -92.5373 0.0406126 0.0340922 0.998593 190 196 196
-45.3246 123.315 -92.7479 -0.0400024 0.0174289 0.999048 193 196 152
-65.7419 131.544 -91.462 -0.0131833 -0.010343 0.99986 234 253 254
-50.8358 112.918 -92.5917 -0.0233512 0.00140404 0.999726 196 204 206
-53.6378 103.249 -92.2779 0.0521052 -0.0227033 0.998383 211 218 217
-55.0977 133.436 -92.7256 0.020669 0.00959269 0.99974 255 255 255
-69.6189 113.662 -84.2689 0.0429053 0.081262 0.995769 47 49 38
-65.0011 128.836 -92.4591 0.073495 0.0161197 0.997165 188 193 191
-66.1675 112.466 -92.2135 0.00997774 0.07462 0.997162 107 107 109
-50.981 106.426 -92.2769 -0.154892 -0.0113029 0.987867 207 215 217
-51.8565 134.668 -92.819 -0.0414898 -0.00897394 0.999099 198 206 211
-54.9767 114.13 -92.5159 0.0245936 0.0275266 0.999318 204 211 214
-49.189 105.714 -92.3943 0.0375952 -0.13712 0.989841 205 212 215
-54.5506 111.662 -92.4106 0.0721686 0.0837323 0.993872 207 213 216
-51.6405 109.988 -92.3811 -0.191542 0.15403 0.969323 205 212 214
-65.7852 104.758 -89.33 -0.0364587 -0.00260013 0.999332 112 112 89
-63.6967 133.791 -92.6677 0.0695647 -0.0102353 0.997525 129 129 129
-49.8781 129.691 -92.9126 -0.00912665 0.000169062 0.999958 201 208 211
-48.385 117.755 -92.7031 -0.0176741 0.0655088 0.997695 198 207 209
-50.4843 107.678 -92.5536 -0.0411399 0.0701347 0.996689 166 175 176
-44.6743 117.878 -92.7524 0.166101 -0.0518463 0.984745 148 160 114
-62.3205 116.869 -92.3876 -0.00612523 0.0242684 0.999687 203 208 204
-62.9678 128.312 -92.5885 0.0446903 0.0753422 0.996156 192 196 197
-61.313 125.753 -92.6086 0.0812145 0.0570225 0.995064 181 180 179
-53.0594 111.268 -92.4556 0.0142982 -0.152943 0.988132 206 212 215
-58.7502 107.552 -92.3342 0.0350653 0.0257324 0.999054 212 219 220
-55.7214 112.82 -92.6031 0.046744 0.0180692 0.998743 168 174 172
-70.4388 126.273 -92.1604 -0.0239532 0.130768 0.991124 86 99 69
-48.9064 121.811 -92.736 -0.0132353 -0.00877995 0.999874 201 208 208
-47.261 102.605 -92.2311 0.0397128 0.0566762 0.997602 203 212 213
-55.6638 127.21 -92.7438 0.0318086 0.0750476 0.996673 198 203 206
-48.8058 103.828 -92.365 0.0398622 0.0567263 0.997594 204 213 215
-54.8229 111.075 -92.386 -0.0198766 0.054092 0.998338 205 211 213
-55.5191 123.269 -92.5888 0.021734 -0.047589 0.998631 206 212 212
-54.0959 129.363 -92.7073 0.0393457 -0.0467813 0.99813 202 207 210
-60.9103 118.616 -92.4788 -0.00226283 0.0437146 0.999041 210 213 212
-56.2961 107.932 -92.464 -0.0387449 -0.00473013 0.999238 214 219 219
-44.4353 113.85 -92.4821 -0.0995256 0.104869 0.989493 136 142 98
-61.1453 114.2 -92.3587 -0.0451061 -0.0235767 0.998704 222 229 228
-68.907 124.018 -91.2918 0.172807 -0.0158289 0.984829 196 221 223
-62.5331 128.129 -92.5357 0.00522338 0.0938765 0.99557 194 200 200
-50.8955 134.817 -92.8015 0.0415609 -0.0198838 0.998938 201 206 211
-54.6586 113.827 -92.5029 0.0349959 -0.0555901 0.99784 207 213 215
-47.2012 109.958 -92.4075 -0.00133836 0.0302406 0.999542 194 201 203
-46.5231 118.123 -92.6337 -0.0106908 0.00591888 0.999925 171 180 136
-61.2054 111.22 -92.31 -0.00551126 0.0170435 0.99984 223 216 216
-59.988 128.928 -92.6216 0.0113944 -0.00500942 0.999923 194 197 201
-53.9484 114.139 -92.4694 0.0427093 0.0286377 0.998677 204 212 214
-47.6942 120.319 -92.6906 0.0393594 0.0438313 0.998263 245 246 247
-54.5502 114.304 -92.6903 0.0714094 0.0312094 0.996959 180 188 187
-49.9414 107.603 -92.4241 -0.000441276 -0.097314 0.995254 201 209 211
-51.98 133.869 -92.8238 -0.039258 6.87342e-05 0.999229 196 204 209
-54.1308 107.636 -92.4923 -0.0160528 0.00150648 0.99987 157 161 162
-49.8081 120.249 -92.6363 0.0785527 -0.00158122 0.996909 203 211 213
-67.6358 130.248 -92.1063 0.109933 0.139667 0.984077 137 139 96
-48.6427 120.242 -92.6361 0.00696011 0.0283975 0.999572 196 203 204
-50.1383 133.898 -92.8199 -0.016406 -0.0135054 0.999774 197 205 207
-44.9394 103.015 -92.3736 0.032914 0.0585766 0.99774 202 210 213
-55.2873 130.324 -92.6909 0.0445863 0.0620716 0.997075 221 233 240
-50.1666 110.011 -92.4867 0.118707 0.0893018 0.988905 194 202 205
-46.2887 114.597 -92.6924 -0.0971781 0.0508509 0.993967 176 180 137
-58.0816 116.844 -92.4786 0.00313012 -0.0036162 0.999989 211 217 218
-50.2252 107.775 -92.4703 -0.135221 0.0283727 0.990409 205 213 215
-47.1482 124.428 -92.7903 -0.0112575 0.0335934 0.999372 185 194 196
-51.3841 113.139 -92.525 0.0255958 -0.0794336 0.996511 202 210 213
-53.1862 104.146 -92.3051 0.000132699 0.0771468 0.99702 199 207 209
-59.448 109.291 -92.2949 -5.65288e-05 -0.139819 0.990177 217 222 221
-56.3563 127.16 -92.621 0.0284317 0.0339332 0.99902 206 211 214
-61.0327 128.24 -92.5183 0.0598684 -0.000908927 0.998206 175 178 180
-49.9791 107.491 -92.5787 0.00657897 0.100161 0.994949 200 206 207
-52.1532 115.08 -92.5066 0.0630804 -0.0233939 0.997734 207 214 217
-61.1283 125.788 -92.5349 0.0428299 0.0380082 0.998359 181 182 179
-59.8752 107.644 -92.2635 0.0402623 0.0615706 0.99729 210 216 216
-65.2465 130.424 -92.504 0.0470636 0.000993926 0.998891 183 188 184
-56.7226 121.324 -92.6017 -0.0156389 0.022385 0.999627 204 211 212
-44.6992 115.646 -92.6639 0.054688 0.0482187 0.997339 96 139 73
-52.0415 112.162 -92.5123 -0.176069 0.0763274 0.981414 201 208 211
-57.7599 129.691 -92.6608 0.0363125 -0.00149152 0.999339 204 209 211
-53.0388 108.161 -92.3235 -0.010548 0.0396835 0.999157 205 213 215
-47.1151 110.049 -92.4206 -0.00594395 -0.0404469 0.999164 194 201 203
-48.7923 111.602 -92.5394 0.00199533 -0.106533 0.994307 195 201 204
-49.2536 102.726 -92.4246 0.0871011 0.0714917 0.993631 199 207 210
-53.3087 135.375 -92.7783 -0.00551693 0.0118493 0.999915 242 241 244
-58.3636 110.259 -92.4171 0.0301288 0.0540143 0.998086 211 220 219
-45.1619 110.359 -92.5644 0.0710376 0.00983935 0.997425 170 179 137
-60.9245 112.188 -92.3171 -0.0331498 0.0301829 0.998995 220 227 227
-47.0524 127.832 -92.961 0.00404977 0.0358988 0.999347 196 202 202
-59.9168 106.005 -92.194 -0.0103436 0.079656 0.996769 206 211 211
-59.9823 127.405 -92.515 -0.00275366 0.0467331 0.998904 176 181 184
-54.0341 130.808 -92.6946 0.0833486 0.0153054 0.996403 195 203 207
-58.3633 111.845 -92.379 -0.0105387 0.0476396 0.998809 214 222 222
-53.7342 129.4 -92.7091 0.0261709 -0.0259816 0.99932 203 210 212
-55.6986 103.044 -92.1648 -0.00785959 0.0409552 0.99913 208 215 215
-49.8175 119.332 -92.7763 -0.0178124 0.0156611 0.999719 204 210 212
-53.6228 108.743 -92.2936 0.0149437 0.0903029 0.995802 205 213 215
-54.9576 123.265 -92.5694 0.0467061 -0.00485807 0.998897 206 213 215
-48.302 109.081 -92.4029 0.00649064 -0.0177487 0.999821 195 203 206
-59.1257 110.327 -92.338 -0.0351424 0.0782381 0.996315 214 220 220
-53.6047 126.146 -92.6262 -0.0132307 0.0261399 0.999571 203 210 212
-63.5899 119.157 -92.4274 0.0368629 0.00171048 0.999319 187 188 186
-60.9461 113.787 -92.3648 0.0318943 0.00283184 0.999487 222 228 226
-59.0189 129.161 -92.5691 0.0401179 -0.0140383 0.999096 183 187 187
-47.8414 104.044 -92.3503 0.0205917 -0.00530836 0.999774 204 213 215
-54.458 122.616 -92.582 0.0494703 -0.0132676 0.998687 203 210 212
-47.1898 109.786 -92.5685 0.00445639 -0.0515583 0.99866 205 211 214
-60.0419 112.005 -92.3774 0.0448523 -0.0071789 0.998968 223 229 229
-60.6828 114.518 -92.399 -0.0705635 0.02862 0.997097 217 222 221
-59.1522 104.712 -92.185 -0.0795075 -0.0210512 0.996612 210 208 208
-45.1044 106.212 -92.4896 -0.0016674 0.0780298 0.99695 190 197 199
-48.6934 106.209 -92.3452 0.00257679 0.0368954 0.999316 203 212 214
-53.2048 125.81 -92.6837 0.0417573 0.0298606 0.998681 204 212 214
-53.0563 121.78 -92.6756 0.0730407 0.0375374 0.996622 201 210 211
-46.2095 110.941 -92.4935 -0.00711977 0.0322415 0.999455 200 204 206
-53.5821 112.029 -92.3908 0.0511526 -0.00242266 0.998688 206 211 214
-60.5031 117.83 -92.4269 0.0408719 -0.00120075 0.999164 215 219 218
-63.6377 121.526 -92.438 -0.00344142 0.0257996 0.999661 207 212 212
-60.8522 115.323 -92.3615 -0.000985254 0.0117465 0.999931 214 219 218
-54.384 103.504 -92.2948 0.0945349 -0.0344334 0.994926 211 220 220
-48.927 107.891 -92.3585 -0.066886 -0.00165354 0.997759 201 209 211
-60.862 125.991 -92.5008 -0.0200834 0.0142868 0.999696 182 183 181
-50.4863 117.297 -92.5895 0.0515499 -0.037456 0.997968 201 210 212
-57.0143 103.292 -92.1772 -0.0853244 0.0492385 0.995136 208 213 215
-47.0969 129.699 -92.8183 -0.0181673 0.039291 0.999063 195 202 202
-56.6118 112.772 -92.395 0.027278 -0.00694301 0.999604 205 212 214
-57.8109 127.556 -92.6258 0.00165637 0.00121032 0.999998 201 206 211
-46.9125 112.797 -92.6269 0.0349625 0.101537 0.994217 194 201 204
-46.6946 104.88 -92.366 0.00841799 0.0279491 0.999574 205 211 214
-52.8121 125.086 -92.7239 0.0219078 0.0181543 0.999595 204 209 212
-54.8798 122.135 -92.5096 -0.034528 0.012892 0.999321 206 212 215
-64.1793 126.475 -92.4606 0.0292046 0.00391192 0.999566 194 197 194
-62.6654 119.327 -92.408 -0.000775717 0.0630628 0.998009 186 189 186
-57.9625 116.515 -92.4377 -0.00215051 0.00316593 0.999993 212 217 219
-47.3407 125.553 -92.8225 0.0533936 0.00317976 0.998568 191 196 198
-46.7922 126.62 -92.9062 -0.0155612 0.00674235 0.999856 187 192 193
-60.5238 111.603 -92.3636 -0.00587096 0.00728308 0.999956 221 227 226
-64.6107 126.251 -92.5372 0.0410388 -0.0254258 0.998834 197 198 195
-51.541 110.56 -92.6147 -0.0592508 -0.092481 0.99395 185 192 198
-50.8075 132.29 -92.8553 0.0582622 0.0327692 0.997763 203 209 209
-59.0886 120.141 -92.4917 0.0528929 -0.0271935 0.99823 200 206 206
-60.507 130.372 -92.5424 0.0362371 0.0375572 0.998637 193 193 191
-53.9558 128.919 -92.7535 0.0327666 0.00994664 0.999414 203 209 212
-51.3771 104.083 -92.2189 -0.0103939 0.0384057 0.999208 207 213 215
-70.1302 125.829 -92.2533 -0.0125054 -0.166584 0.985948 119 120 90
-51.2048 109.679 -92.5064 0.00431352 -0.00845963 0.999955 157 159 167
-66.9583 112.438 -92.334 0.174615 0.0855434 0.980914 69 71 70
-50.2832 117.237 -92.6988 0.0648395 0.0247322 0.997589 203 211 213
-63.3163 108.797 -92.2584 -0.0114954 0.105207 0.994384 182 187 178
-55.0767 124.319 -92.696 -0.00162192 0.0233512 0.999726 204 209 212
-54.1344 111.181 -92.4239 0.0336477 0.108346 0.993544 208 213 214
-54.1658 132.824 -92.7682 0.0366815 0.0165017 0.999191 219 231 240
-54.1266 117.339 -92.6236 0.00679691 0.0243579 0.99968 190 195 200
-53.2547 107.302 -92.5114 0.0660624 -0.00689888 0.997792 158 160 166
-58.7522 124.216 -92.54 -0.0386277 0.0571555 0.997618 209 213 215
-48.3164 129.472 -92.9089 0.0164438 -0.00344094 0.999859 201 208 209
-54.348 116.725 -92.5227 0.0509027 0.0365522 0.998034 207 213 215
-50.9316 123.771 -92.826 0.10307 -0.0160011 0.994545 203 210 212
-56.6544 110.884 -92.3665 0.12224 0.0826292 0.989055 216 221 223
-47.344 103.744 -92.4405 0.0254842 -0.00123536 0.999674 206 214 217
-50.3616 131.471 -92.7681 0.0388035 -0.00831919 0.999212 204 209 211
-59.7309 118.985 -92.4657 0.0576918 0.00534365 0.99832 211 215 214
-57.667 112.112 -92.3586 0.0348811 -0.0600691 0.997585 218 226 225
-59.7328 112.623 -92.3608 0.0614447 0.0431679 0.997177 218 226 225
-52.0735 131.251 -92.7985 0.0795569 0.029243 0.996401 206 212 215
-59.6957 119.61 -92.3956 0.0153143 0.0497955 0.998642 208 212 212
-61.5037 126.392 -92.5555 0.0465184 -0.00223406 0.998915 206 211 209
-68.8281 118.703 -92.3271 0.0314061 -0.0436257 0.998554 146 126 102
-49.7805 125.362 -92.8678 0.0767766 0.0389505 0.996287 200 208 208
-54.0138 104.423 -92.3069 -0.0394612 0.0360787 0.99857 211 219 219
-59.2114 118.133 -92.5208 -0.0296226 0.0521977 0.998197 213 217 217
-57.1665 110.91 -92.3536 0.0104821 0.019583 0.999753 214 223 222
-60.9189 120.125 -92.4006 -0.0145584 0.0304278 0.999431 196 199 198
-48.4608 107.782 -92.5052 -0.0916189 -0.0193587 0.995606 202 210 212
-53.7884 104.073 -92.2749 -0.142484 -0.0983134 0.984902 209 217 216
-63.6045 118.997 -92.4144 0.0484672 0.00494742 0.998813 185 184 182
-52.7601 115.89 -92.5121 0.00167266 -0.00789425 0.999967 204 211 213
-54.0461 118.973 -92.4734 0.0288326 0.0234305 0.99931 203 211 214
-54.9033 110.782 -92.4416 -0.00755754 -0.0352646 0.999349 202 208 210
-48.6822 111.814 -92.4645 0.0750326 0.0496725 0.995943 192 198 202
-52.6549 128.558 -92.7362 0.00140738 -0.00359478 0.999993 206 211 214
-47.4626 106.232 -92.3593 -0.00215248 0.0645002 0.997915 203 210 212
-58.7366 108.001 -92.2396 -0.0234597 0.0145808 0.999618 209 218 218
-62.012 132.338 -92.5845 0.000563912 0.0291009 0.999576 190 196 200
-46.2596 124.61 -92.7756 -0.0510974 0.0250121 0.99838 157 157 121
-55.2186 108.024 -92.4069 -0.0636884 0.0506629 0.996683 208 214 216
-62.3917 118.163 -92.429 0.0332762 0.0140147 0.999348 191 193 190
-53.8313 103.366 -92.2967 -0.052029 0.0339016 0.99807 210 216 217
-57.4798 104.59 -92.3409 -0.0113095 0.0264667 0.999586 208 214 215
-57.7568 135.338 -92.8056 0.00373523 0.0662509 0.997796 198 199 202
-54.3755 112.449 -92.4494 -0.0186473 -0.0535512 0.998391 205 213 215
-69.2872 123.956 -91.3618 -0.122711 0.087823 0.988549 178 211 217
-51.7094 111.04 -92.4825 -0.0909946 0.157418 0.983331 200 208 210
-56.4646 133.966 -92.7374 0.0148957 0.0388157 0.999135 255 255 255
-57.6867 123.849 -92.5849 -0.00204323 0.0178384 0.999839 224 225 219
-46.0777 134.026 -93.0033 -0.0109942 -0.0481338 0.99878 199 205 207
-48.8696 132.364 -92.8997 0.0591618 0.028749 0.997834 196 204 204
-51.4048 112.634 -92.4936 -0.00889687 0.167254 0.985874 202 210 212
-49.7327 106.761 -92.3817 0.0818423 -0.0486858 0.995455 205 213 214
-53.8856 121.056 -92.5893 -0.00591907 0.0199601 0.999783 200 208 209
-54.4115 127.124 -92.6854 0.0138311 0.0565406 0.998304 201 208 210
-50.5692 120.911 -92.7102 0.0867774 0.0326571 0.995692 201 208 210
-45.951 118.221 -92.6903 -0.00679777 0.0721686 0.997369 151 162 115
-50.5177 105.46 -92.4507 0.186156 -0.136414 0.973004 159 163 168
-55.6526 121.239 -92.5452 0.0594597 -0.000911047 0.99823 205 211 214
-53.8489 122.127 -92.6051 -0.029161 0.0322946 0.999053 202 209 212
-54.5967 119.9 -92.5968 0.0561584 0.0396242 0.997635 199 207 209
-51.1632 106.112 -92.4526 -0.0870303 -0.0480458 0.995046 210 217 219
-66.4811 120.231 -92.3402 9.69682e-06 0.0103348 0.999947 197 198 196
-58.5893 128.592 -92.5904 0.00621044 0.0258707 0.999646 194 198 202
-44.5186 110.503 -92.6181 0.0692107 -0.0300059 0.997151 212 210 193
-62.2757 126.832 -92.5144 0.0625503 0.0413587 0.997184 191 193 191
-53.3187 112.739 -92.5946 0.00981911 0.0250685 0.999638 206 212 214
-54.2575 102.767 -92.3145 -0.0890302 0.143575 0.985627 212 220 222
-52.3424 130.52 -92.7644 0.0650199 0.0265693 0.99753 205 213 215
-56.7949 132.336 -92.6923 0.0328594 -0.0095679 0.999414 205 227 235
-62.0709 113.278 -92.3779 0.0268565 0.00432136 0.99963 211 216 215
-52.6149 134.673 -92.833 0.0292225 -0.015351 0.999455 196 204 208
-44.5696 133.074 -93.0048 0.0809816 -0.0154326 0.996596 193 199 199
-53.2549 106.875 -92.211 0.0880226 0.105189 0.990549 203 211 213
-54.9199 111.966 -92.5049 0.0452501 0.0728715 0.996314 208 214 216
-49.3239 107.038 -92.2916 -0.0517214 0.105032 0.993123 203 211 213
-51.2687 129.032 -92.8338 0.0287228 -0.00584267 0.99957 205 211 214
-59.0144 102.479 -92.1724 0.0602002 -0.0139264 0.998089 193 202 198
-44.664 102.461 -92.3462 0.0733692 0.0307994 0.996829 202 210 212
-59.4375 122.952 -92.4881 0.0487883 0.0379403 0.998088 204 209 208
-59.7338 124.035 -92.4772 -0.000248868 -0.0183791 0.999831 195 198 199
-50.8139 125.742 -92.7269 0.0618798 0.053335 0.996658 203 210 212
-48.8426 109.778 -92.5289 0.0128358 -0.0431165 0.998988 196 204 207
-66.9796 126.264 -92.5038 0.015383 0.0126759 0.999801 148 149 147
-62.6787 124.799 -92.4697 0.00592484 0.00589718 0.999965 184 187 186
-59.0066 127.977 -92.5935 0.00799713 0.0456906 0.998924 187 192 195
-54.6355 119.667 -92.5691 0.0279719 0.00514944 0.999595 198 206 208
-67.5132 120.764 -92.3301 0.0250706 0.00669431 0.999663 173 175 167
-52.3843 105.302 -92.391 0.0256547 0.119494 0.992503 210 216 219
-54.9007 110.33 -92.4631 0.000900454 -0.0725209 0.997366 207 215 216
-49.6117 113.806 -92.5219 -0.0284236 0.0627988 0.997621 202 210 212
-59.6723 131.599 -92.5797 0.0163776 -0.00187176 0.999864 186 188 193
-45.8128 103.592 -92.3338 -0.0187383 0.00675103 0.999802 201 210 212
-65.5189 121.003 -92.429 0.0124626 0.000519317 0.999922 195 198 195
-48.1473 123.301 -92.7879 0.0355235 0.00529309 0.999355 190 195 198
-59.6578 119.706 -92.5128 0.00192796 0.0678476 0.997694 208 212 212
-52.4781 118.274 -92.6518 -0.0195581 0.0144824 0.999704 204 212 214
-61.8785 108.439 -92.2587 -0.0110403 0.0189553 0.999759 198 203 199
-50.479 111.332 -92.6006 -0.110408 0.0071978 0.99386 192 200 203
-67.6411 122.556 -92.3088 0.0141619 0.0082999 0.999865 168 166 161
-49.6228 130.654 -92.8262 0.0343777 -0.0420035 0.998526 196 204 205
-48.5013 130.033 -92.9022 0.00919611 0.0205649 0.999746 202 209 210
-59.6598 111.45 -92.3054 0.030046 -0.0111138 0.999487 220 225 225
-57.5449 108.375 -92.2459 -0.00574876 -0.0580183 0.998299 214 220 220
-60.4594 134.6 -92.6848 0.0836389 -0.00803401 0.996464 187 194 198
-60.9016 121.526 -92.4424 -0.0501546 0.0613671 0.996854 191 194 193
-59.8166 113.846 -92.3873 0.0153703 0.0306202 0.999413 212 217 217
-46.2503 113.356 -92.6199 0.0113789 0.0146148 0.999828 145 155 102
-44.3383 107.498 -92.5492 0.0424363 0.0724581 0.996468 189 191 184
-55.9006 123.937 -92.6218 -0.000561836 0.0460226 0.99894 201 208 210
-59.5008 111.973 -92.3587 0.0756275 -0.0192207 0.996951 218 223 222
-53.1639 106.299 -92.3169 0.0390804 -0.0990513 0.994315 204 210 212
-62.1976 111.016 -92.3504 -0.0148606 0.000871321 0.999889 202 207 203
-51.3144 102.119 -92.2651 -0.0195413 0.0806055 0.996555 211 216 217
-44.2282 115.457 -92.5146 -0.0628149 0.0513624 0.996703 92 141 74
-66.7747 111.598 -92.2897 0.179142 0.119319 0.976561 85 88 87
-48.7659 110.675 -92.551 -0.0209189 0.100238 0.994744 192 202 204
-63.2277 126.529 -92.4844 -0.00476551 0.0014501 0.999988 196 199 198
-46.7052 134.069 -92.9446 0.0522842 0.0417228 0.99776 199 207 208
-63.7407 129.993 -92.5311 0.0573145 0.0568283 0.996737 197 201 202
-62.0303 123.427 -92.4642 0.0377838 0.0271429 0.998917 179 179 176
-51.3665 103.306 -92.3025 0.00493301 -0.0794059 0.99683 207 213 216
-57.558 126.429 -92.6392 0.0262699 0.0187792 0.999478 203 208 212
-56.5301 121.188 -92.5309 0.0378157 0.0433184 0.998345 202 209 210
-45.1124 104.875 -92.3376 -0.0164357 0.0653537 0.997727 200 206 209
-44.8139 114.885 -92.7065 0.0226954 0.0288682 0.999326 127 162 107
-62.3967 113.157 -92.3485 0.00159378 -0.00316197 0.999994 205 209 209
-49.2127 127.526 -92.8014 0.033159 -0.0287363 0.999037 202 209 211
-61.7995 103.588 -92.0618 0.0192618 0.0184099 0.999645 162 164 163
-47.2195 102.257 -92.3155 0.0112687 0.0525449 0.998555 205 213 215
-45.2817 130.714 -92.9327 -0.047083 0.00572026 0.998875 193 199 197
-53.8549 102.732 -92.2761 0.00911151 0.103308 0.994608 213 222 221
-63.8952 123.049 -92.4948 0.0323818 -0.00192669 0.999474 199 202 201
-60.6812 102.255 -92.0863 0.0397761 -0.00320803 0.999203 186 189 184
-48.1835 105.429 -92.3965 -0.00595956 0.0568713 0.998364 203 211 213
-60.3189 112.117 -92.284 -0.00928839 0.02905 0.999535 222 228 227
-49.9675 107.693 -92.4712 0.0226543 -0.0810363 0.996454 201 206 208
-63.6656 122.903 -92.394 0.0216287 -0.00752359 0.999738 197 200 198
-51.8529 107.014 -92.3822 -0.022631 0.164998 0.986034 207 215 216
-44.432 110.439 -92.5297 0.0220674 0.00940322 0.999712 202 199 193
-50.1123 104.603 -92.4047 0.054223 0.107959 0.992676 209 215 217
-55.3591 124.495 -92.6491 0.0463026 0.00524866 0.998914 202 209 211
-44.2358 103.986 -92.334 0.0011743 -0.108972 0.994044 202 210 210
-58.9042 108.355 -92.2772 0.0578991 0.0540876 0.996856 211 220 220
-50.4378 111.351 -92.4499 -0.0399107 0.0896554 0.995173 198 206 208
-52.5304 113.009 -92.6314 0.0041808 0.115661 0.99328 191 197 200
-53.5863 108.722 -92.3135 -0.0164155 0.120715 0.992551 205 213 215
-44.4078 105.145 -92.5101 0.00849393 0.0729133 0.997302 203 210 210
-46.3586 131.796 -92.9871 0.00441288 0.0502886 0.998725 190 197 197
-45.0369 127.552 -92.8562 0.0106987 0.0428996 0.999022 157 170 113
-53.2747 109.092 -92.363 -0.113337 -0.0244999 0.993255 205 213 215
-50.5237 123.199 -92.7209 0.0360104 0.0498389 0.998108 204 210 213
-63.8767 111.453 -92.3426 0.00371562 0.00253924 0.99999 185 189 180
-44.582 116.767 -92.727 -0.156642 0.149029 0.976347 106 121 84
-61.0637 124.604 -92.5266 0.0397583 0.0472705 0.998091 184 186 183
-53.5987 103.739 -92.1489 -0.0770839 -0.0179974 0.996862 209 216 216
-56.8128 109.014 -92.3019 -0.0832789 -0.00627578 0.996507 217 224 223
-46.6884 107.123 -92.4167 -0.061561 0.0426815 0.99719 201 209 211
-58.9982 103.764 -92.1221 0.0125784 0.0714065 0.997368 206 210 209
-60.9673 111.352 -92.2355 0.0115674 0.0245658 0.999631 220 216 216
-51.4817 106.194 -92.4311 0.042285 0.0108906 0.999046 201 208 211
-62.0332 104.116 -92.1416 0.0316068 0.0306826 0.999029 185 189 188
-57.3009 103.563 -92.3736 -0.0480316 -0.0365249 0.998178 217 223 223
-57.3101 104.978 -92.3112 -0.0384185 0.00548485 0.999247 212 219 219
-57.5219 127.912 -92.6086 0.0651838 0.0353694 0.997246 201 207 210
-54.4578 106.259 -92.3328 0.0115992 0.0535925 0.998496 211 216 218
-44.7992 125.67 -92.8496 0.0132863 0.0258401 0.999578 175 184 128
-64.9495 110.084 -92.3148 -0.0178781 -0.0186315 0.999667 167 169 168
-64.2718 118.901 -92.3686 -0.01162 0.0140147 0.999834 207 211 208
-53.9065 123.044 -92.5922 -0.0142379 0.0358924 0.999254 204 211 213
-61.6145 115.674 -92.3352 0.0012383 0.00286682 0.999995 207 210 209
-48.2328 104.852 -92.2934 -0.00803124 -0.0169743 0.999824 205 213 215
-52.9167 123.515 -92.6214 0.00743383 0.0634001 0.997961 202 209 212
-44.2539 106.6 -92.4335 0.104739 0.0487161 0.993306 200 195 189
-56.7351 111.577 -92.5221 0.110791 -0.002907 0.993839 203 208 208
-49.7913 104.525 -92.3417 -0.00565816 -0.0242325 0.99969 205 213 215
-53.8849 113.421 -92.4741 0.0826936 -0.0514198 0.995248 203 211 213
-66.531 115.548 -92.3178 -0.0236144 -0.00718107 0.999695 173 176 169
-60.8828 131.638 -92.582 0.0481971 0.0111421 0.998776 191 197 201
-49.4058 108.766 -92.396 -0.0575031 -0.0313705 0.997852 203 210 213
-64.0589 123.528 -92.4631 0.0171881 0.019794 0.999656 197 201 200
-60.3585 127.558 -92.5454 0.0318188 0.00476363 0.999482 183 185 187
-53.4195 102.698 -92.2074 0.0742588 0.0158146 0.997114 212 219 220
-63.1029 111.965 -92.3426 0.0267402 -0.0235517 0.999365 192 195 190
-53.2454 102.947 -92.1387 -0.0554579 0.068304 0.996122 211 217 218
-53.4344 113.72 -92.3673 0.0666348 0.0816916 0.994428 205 212 214
-49.291 105.188 -92.4202 -0.0400907 0.0984529 0.994334 205 212 215
-57.487 125.164 -92.6164 0.0451837 -0.0172126 0.99883 204 207 205
-64.6004 125.562 -92.4711 0.0229128 0.0281317 0.999342 197 200 197
-47.034 106.407 -92.4519 0.0461614 0.0544528 0.997449 206 212 213
-52.8358 118.821 -92.6636 0.0602604 -0.0475283 0.997051 206 214 216
-50.2186 111.827 -92.5794 -0.177878 0.0441199 0.983063 197 205 207
-50.7471 107.164 -92.4806 0.0285059 -0.00161442 0.999592 196 204 207
-60.168 106.917 -92.269 -0.00240811 -0.04682 0.9989 207 214 212
-52.7331 118.964 -92.7046 0.0452139 -0.0169131 0.998834 191 196 202
-44.4001 133.505 -93.0259 0.108983 0.0438556 0.993076 195 202 202
-59.2548 129.878 -92.678 0.0208466 -0.000991521 0.999782 181 183 182
-64.1892 130.223 -92.557 -0.0143192 0.00714236 0.999872 194 199 198
-56.8052 131.586 -92.6988 0.0556073 0.0291727 0.998026 200 205 210
-59.3411 126.374 -92.511 0.0369396 -0.010503 0.999262 195 198 197
-58.7402 115.207 -92.4121 -0.0375534 -0.0581934 0.997599 217 221 222
-66.7845 121.522 -92.428 0.0355602 0.0317106 0.998864 190 194 189
-64.8306 119.755 -92.3987 -0.00713973 0.0119381 0.999903 197 200 198
-49.1633 103.002 -92.2666 0.0728448 0.0278449 0.996955 205 213 215
-62.8114 116.28 -92.3934 0.0327152 0.0127346 0.999384 200 204 201
-46.9774 102.151 -92.3197 0.0255491 0.0194576 0.999484 203 211 213
-44.386 110.854 -92.5484 0.148757 -0.0870869 0.985032 190 205 174
-55.004 125.678 -92.6425 -0.00807833 0.0207658 0.999752 200 206 209
-61.296 123.446 -92.5039 0.0130253 0.0267131 0.999558 190 191 188
-50.7983 129.299 -92.774 0.0439356 -0.0148129 0.998925 203 209 212
-50.6481 110.312 -92.6419 0.163486 0.13677 0.977019 180 188 187
-54.42 114.667 -92.5348 0.0199955 0.0502207 0.998538 203 211 212
-57.0497 104.71 -92.1643 0.0273094 0.000392895 0.999627 214 221 221
-59.0167 116.563 -92.4202 0.0601107 0.0154025 0.998073 214 220 220
-51.5213 130.688 -92.7942 0.0336383 0.0180224 0.999272 202 211 211
-60.4818 104.461 -92.1857 -0.00033738 0.0406032 0.999175 197 200 197
-58.7086 128.47 -92.5472 -0.0031796 0.0361283 0.999342 190 197 200
-59.1804 132.577 -92.6814 0.0234671 0.0446367 0.998728 192 194 196
-53.5526 105.242 -92.4062 0.142991 0.0430752 0.988786 208 214 215
-49.4417 106.394 -92.34 0.1224 0.0935525 0.988062 208 213 216
-48.6239 134.263 -92.9387 0.0173519 0.0437565 0.998892 196 203 203
-62.2006 127.662 -92.5296 0.0219079 -0.0473085 0.99864 199 203 201
-53.919 107.949 -92.4251 0.182923 0.0450893 0.982093 180 186 184
-53.1677 135.312 -92.7446 -0.0128709 0.0178541 0.999758 216 217 223
-52.9127 119.841 -92.553 0.00585174 0.0235105 0.999706 202 210 212
-48.1897 108.535 -92.5023 -0.0204115 0.0504458 0.998518 195 203 206
-58.2603 126.291 -92.5676 0.00801428 0.0582595 0.998269 202 209 213
-57.2089 125.162 -92.6148 0.0192632 -0.0183771 0.999646 220 220 215
-52.7789 109.199 -92.4923 0.00725445 0.0970726 0.995251 207 213 216
-63.7769 120.537 -92.4481 0.0333446 -0.0160916 0.999314 212 214 211
-48.8171 105.569 -92.4648 -0.139676 0.00587717 0.99018 207 215 218
-60.67 113.11 -92.3622 0.0328686 -0.000738989 0.999459 223 230 230
-45.0965 105.36 -92.5099 0.0441866 -0.0424858 0.998119 155 157 161
-54.9956 103.27 -92.3328 0.0492444 -0.0395106 0.998005 185 190 192
-45.0416 118.065 -92.6545 0.0859081 0.0512186 0.994986 160 172 124
-48.1147 117.048 -92.6259 0.0484157 0.0213613 0.998599 216 220 227
-46.5485 134.994 -92.9736 0.052641 0.0177473 0.998456 202 209 209
-49.1145 110.429 -92.4259 -0.0356163 -0.00702082 0.999341 195 204 207
-48.293 114.395 -92.625 0.0475753 0.000385116 0.998868 194 200 202
-50.5215 106.961 -92.403 0.031798 -0.0534814 0.998062 206 212 214
-51.1991 106.807 -92.331 -0.0416263 -0.00100625 0.999133 206 214 216
-55.7968 124.59 -92.6071 0.00467611 0.0121863 0.999915 203 209 211
-61.6546 109.446 -92.2296 -0.0110951 0.0452937 0.998912 202 207 204
-58.1432 108.633 -92.2656 0.0719663 0.0546636 0.995908 211 218 217
-56.43 122.021 -92.5418 -0.0103305 -0.00509539 0.999934 202 208 209
-50.8562 133.366 -92.8689 0.0538558 0.0826132 0.995125 203 210 212
-58.8059 108.239 -92.2241 0.0100115 0.0549211 0.998441 210 219 218
-45.9554 104.145 -92.2611 -0.0438384 0.0300733 0.998586 204 211 213
-62.9232 120.623 -92.4505 0.0207219 0.0241311 0.999494 184 188 184
-53.4596 117.622 -92.551 -0.0399316 0.0629739 0.997216 208 214 216
-45.6664 103.105 -92.2728 0.0545701 -0.0174768 0.998357 203 211 213
-54.7588 103.27 -92.3086 0.104406 -0.101961 0.989294 211 219 219
-64.1557 135.079 -91.5711 -0.13941 0.111398 0.983949 222 239 242
-54.7994 127.009 -92.6042 0.0298152 -0.0295046 0.99912 200 206 209
-48.8811 132.35 -92.8729 0.0732138 0.0345726 0.996717 196 204 204
-54.1584 126.92 -92.6794 0.0179152 0.0418866 0.998962 201 209 211
-47.9948 105.962 -92.4274 -0.0202246 0.0471032 0.998685 200 208 210
-49.2786 132.244 -92.8275 0.0144226 0.0755291 0.997039 198 205 205
-56.5649 117.063 -92.5523 0.082748 0.0413475 0.995712 210 216 218
-55.5097 130.037 -92.6942 -0.00108859 0.0201675 0.999796 212 215 220
-64.1253 106.903 -92.2062 0.00407189 0.0260286 0.999653 156 157 150
-67.8603 121.094 -92.3166 -0.0298594 -0.0156634 0.999431 168 167 162
-52.1874 105.799 -92.4243 0.0299266 0.0822227 0.996165 199 207 209
-54.5184 118.009 -92.639 0.0183661 0.00906655 0.99979 206 213 215
-47.1138 103.86 -92.208 -0.0178541 -0.0013073 0.99984 200 208 211
-63.6583 117.013 -92.4125 0.00337345 0.00821453 0.999961 193 197 198
-64.2606 113.712 -92.3286 0.0137358 0.0264422 0.999556 186 190 186
-46.0317 112.157 -92.5911 -0.0996129 0.0999118 0.989997 189 191 158
-60.7654 110.601 -92.2933 -0.030617 0.0700928 0.997071 210 215 216
-61.0249 107.616 -92.2526 0.000886311 0.00534635 0.999985 204 208 206
-46.4315 115.164 -92.5465 0.096395 -0.0467927 0.994243 165 172 124
-45.4117 110.8 -92.5534 0.0109824 0.00474528 0.999928 174 180 140
-58.4382 102.908 -92.1649 0.00917213 0.0580424 0.998272 201 206 207
-62.3784 130.935 -92.6129 -0.00718152 0.0184374 0.999804 193 198 201
-59.7446 129.863 -92.6082 0.0206781 0.0245901 0.999484 200 200 201
-47.5427 118.958 -92.718 0.0365055 0.00868517 0.999296 167 217 237
-52.0812 130.258 -92.8167 0.00983378 0.0329616 0.999408 208 214 216
-53.0878 114.438 -92.5518 -0.0151603 0.0097817 0.999837 202 210 212
-45.3847 130.015 -92.9971 0.0212031 0.0179561 0.999614 194 200 199
-59.8164 124.403 -92.454 0.0267776 0.0143294 0.999539 195 198 198
-50.9575 107.387 -92.4396 0.030604 0.0852643 0.995888 205 211 214
-48.5504 122.712 -92.7923 0.0423005 0.0696724 0.996673 201 207 208
-62.6598 117.175 -92.4258 -0.0173091 0.0238026 0.999567 190 194 192
-50.7208 103.842 -92.2402 0.0733941 0.150588 0.985868 205 213 215
-53.8114 117.577 -92.5849 0.000190228 -0.0107507 0.999942 209 215 217
-54.9894 104.641 -92.326 0.0279897 -0.0238952 0.999323 213 219 219
-46.3829 105.226 -92.454 -0.00597899 0.0349286 0.999372 195 204 208
-60.5889 116.772 -92.3679 -0.0115099 0.00110206 0.999933 213 218 217
-62.4715 131.843 -92.5891 0.0457769 0.0369372 0.998269 194 201 206
-60.6327 113.312 -92.325 0.0379125 0.0723887 0.996656 225 231 230
-44.345 119.877 -92.8174 0.0481432 0.0755194 0.995981 176 186 140
-58.3274 111.657 -92.3647 0.00316784 0.0305413 0.999528 215 222 222
-58.2819 106.944 -92.3621 -0.0134836 0.000460278 0.999909 203 209 210
-46.3766 111.853 -92.593 0.040036 0.0292286 0.998771 205 207 210
-64.1407 107.776 -92.1823 0.0135036 0.0232028 0.99964 160 162 156
-64.5399 122.784 -92.4698 -0.0783656 0.028505 0.996517 193 195 192
-60.3904 117.533 -92.4356 -0.010644 0.016611 0.999805 216 220 219
-65.6439 116.42 -92.3681 0.010537 -0.00122301 0.999944 197 198 196
-68.3318 118.412 -92.3457 0.0404966 -0.0112483 0.999116 150 147 124
-60.594 118.903 -92.4542 -0.0269378 0.0143259 0.999534 209 213 212
-55.6139 113.868 -92.5215 0.0709562 0.0218836 0.997239 207 213 215
-59.9754 123.315 -92.5167 0.0197582 0.0118442 0.999735 197 200 199
-54.0623 130.458 -92.7694 0.0258806 0.0280482 0.999271 197 205 210
-62.6615 120.186 -92.3946 0.016429 0.0226355 0.999609 187 188 186
-52.3659 134.587 -92.8239 0.0636953 -0.0779493 0.994921 197 205 209
-46.6626 132.356 -92.9482 0.0504905 0.00245118 0.998722 198 204 204
-61.0521 128.076 -92.571 0.0620252 0.0051408 0.998061 179 182 181
-48.5217 110.379 -92.4899 0.00525868 0.0572843 0.998344 193 201 204
-48.507 106.312 -92.3611 -0.0683991 0.00505151 0.997645 202 211 213
-53.8631 112.525 -92.6436 0.0501536 0.122567 0.991192 169 175 173
-47.5313 120.874 -92.7174 -0.024766 0.0055274 0.999678 175 225 240
-61.477 123.659 -92.5128 -0.00216536 0.0109669 0.999938 187 190 187
-54.4239 103.062 -92.1936 -0.02808 0.127882 0.991392 209 218 218
-49.6169 133.169 -92.9209 0.0643987 0.0438583 0.99696 200 207 208
-45.6103 110.06 -92.5694 0.0161119 -0.0225554 0.999616 219 221 214
-45.1809 106.418 -92.4173 0.052257 0.0824385 0.995225 192 198 200
-59.9434 110.618 -92.3185 0.021453 -0.0208993 0.999551 223 229 229
-59.9322 113.956 -92.3234 -0.010468 0.01349 0.999854 211 216 217
-45.555 106.522 -92.3159 0.0600145 -0.0102665 0.998145 201 207 209
-46.1582 116.935 -92.6586 0.0245422 0.0079929 0.999667 172 183 130
-46.9168 133.192 -92.9243 -0.0207165 0.0792053 0.996643 201 206 209
-56.534 130.357 -92.6157 0.0176317 0.0127851 0.999763 196 204 209
-52.3767 102.285 -92.2388 -0.0595878 -0.020034 0.998022 206 211 213
-61.8076 122.303 -92.491 0.0402244 0.00350531 0.999185 181 183 181
-48.5402 102.203 -92.1512 0.0557516 -0.0632692 0.996438 207 212 215
